# .PCD v0.7 - Point Cloud Data file format
VERSION 0.7
FIELDS x y z
SIZE 4 4 4
TYPE F F F
COUNT 1 1 1
WIDTH 1923
HEIGHT 1
VIEWPOINT 0 0 0 1 0 0 0
POINTS 1923
DATA ascii
-31.35659 -4.9608893 10
-31.062479 -4.9436617 10
-30.742041 -4.9609985 10
-30.445629 -4.9573493 10
-30.150705 -4.93086 10
-29.86046 -4.9612045 10
-29.550745 -4.9516635 10
-29.269939 -4.946208 10
-28.94327 -4.9563169 10
-28.645023 -4.9514008 9.9851103
-14.808874 -4.9601812 9.9885263
-14.543684 -4.9491205 10
-14.248582 -4.9380512 10
-13.931982 -4.9484968 10
-13.656594 -4.9507732 10
-13.364781 -4.9597859 10
-13.042661 -4.9590745 10
-12.758005 -4.9519219 10
-12.450663 -4.9592705 10
-12.147246 -4.9424868 10
-11.84945 -4.9515066 10
-11.568443 -4.9499321 10
-11.394563 -4.9518938 9.948617
11.583572 -4.9448481 9.9844065
11.84835 -4.9451251 10
12.149583 -4.9562397 10
12.444841 -4.9482837 10
12.759132 -4.9483633 10
13.050794 -4.9238496 10
13.350433 -4.9557433 10
13.649625 -4.9484487 10
13.940801 -4.9591932 10
14.252776 -4.9426908 10
14.545777 -4.9585533 10
14.86002 -4.9571447 10
15.142608 -4.9528065 10
15.452693 -4.9479122 10
15.740804 -4.9472704 10
16.049292 -4.9400034 10
16.363432 -4.9578576 10
16.653666 -4.9443264 10
16.937511 -4.9532552 10
17.253586 -4.9532638 10
17.534166 -4.9550915 10
17.859497 -4.939374 10
18.154631 -4.9534168 10
18.45941 -4.9620481 10
18.779839 -4.942729 9.9880419
27.13472 -4.9468799 9.9851437
27.439457 -4.9626975 10
27.754229 -4.9512076 10
28.057856 -4.96171 10
28.350231 -4.9544625 10
28.652678 -4.9374738 10
28.967897 -4.9419951 10
29.257776 -4.9587855 10
29.544641 -4.9407048 10
29.848354 -4.9571524 10
30.150881 -4.9431319 10
30.461935 -4.9529901 10
30.752277 -4.9577117 10
31.04455 -4.938344 10
31.343126 -4.9532518 10
31.653587 -4.9506145 10
31.951132 -4.9620938 10
32.253571 -4.9343262 10
32.559132 -4.9454002 10
32.850906 -4.9807405 10
33.151657 -4.9451604 10
33.447426 -4.9255357 10
33.744473 -4.9435301 10
34.051273 -4.9620695 10
34.345375 -4.9624152 10
34.648491 -4.9436383 9.9878235
56.623726 -4.9465709 9.9723902
56.844322 -4.9540048 10
57.156651 -4.9395123 10
57.444855 -4.9442863 10
57.74979 -4.9536753 10
58.053768 -4.94204 10
58.348179 -4.9550657 10
58.640209 -4.9454741 10
58.937424 -4.9424424 10
59.256481 -4.9404202 10
59.523109 -4.9425516 10
59.841248 -4.9357772 10
60.134476 -4.954114 10
60.466358 -4.9471264 10
60.743568 -4.9571972 10
61.045349 -4.9465604 10
61.36042 -4.9591413 10
61.65015 -4.9559879 10
61.958229 -4.936398 10
62.244625 -4.9443383 10
62.547165 -4.9659095 10
62.847195 -4.9385676 10
63.14843 -4.9609404 10
63.452038 -4.9654288 10
63.747013 -4.9614935 10
63.962219 -4.9506292 9.9696636
-35.888191 -4.6481557 9.982893
-35.555717 -4.6533942 10
-35.259731 -4.6453719 10
-34.969677 -4.6255074 10
-34.637882 -4.6466155 10
-34.341148 -4.6361737 10
-34.053108 -4.640759 10
-33.748722 -4.6540003 10
-33.447872 -4.6499605 10
-33.15427 -4.6538234 10
-32.842209 -4.6544294 10
-32.555984 -4.6376352 10
-32.239166 -4.6595516 10
-31.947996 -4.6557541 10
-31.642267 -4.6544852 10
-31.357155 -4.6453371 10
-31.062822 -4.6515846 10
-30.73929 -4.648221 10
-30.44968 -4.6366305 10
-30.131954 -4.644649 10
-29.844276 -4.6663928 10
-29.552776 -4.6482687 10
-29.258446 -4.6531463 10
-28.945501 -4.6499023 10
-28.665085 -4.6400204 9.9871349
-14.822244 -4.6474423 9.9810658
-14.549921 -4.6444893 10
-14.234135 -4.6348619 10
-13.949163 -4.6432786 10
-13.647503 -4.6542387 10
-13.336446 -4.6552935 10
-13.048046 -4.6585855 10
-12.741632 -4.645277 10
-12.462105 -4.6401253 10
-12.163394 -4.6397042 10
-11.838348 -4.6445732 10
-11.553032 -4.6460114 10
-11.394162 -4.659688 9.9595165
11.57301 -4.6447067 9.9825602
11.847935 -4.6518707 10
12.154338 -4.6488729 10
12.470922 -4.6349955 10
12.750874 -4.6498227 10
13.061157 -4.6400242 10
13.36235 -4.6434774 10
13.658043 -4.6535068 10
13.957444 -4.6362057 10
14.255058 -4.6439891 10
14.569761 -4.652873 10
14.832727 -4.6428752 10
15.143876 -4.6564307 10
15.461766 -4.6479163 10
15.754011 -4.6372948 10
16.050955 -4.6367936 10
16.337729 -4.6522899 10
16.656979 -4.6359882 10
16.938341 -4.6610951 10
17.257637 -4.6597819 10
17.552191 -4.6555314 10
17.850704 -4.6570621 10
18.137007 -4.6423326 10
18.46736 -4.6631856 10
18.773153 -4.6476626 9.9826307
27.164091 -4.6509757 9.9802303
27.457249 -4.6347079 10
27.740282 -4.648438 10
28.044418 -4.6348419 10
28.340708 -4.6409154 10
28.649012 -4.64891 10
28.951698 -4.643681 10
29.258083 -4.6566572 10
29.555212 -4.6529408 10
29.849682 -4.6597538 10
30.148794 -4.651094 10
30.448992 -4.6521044 10
30.741787 -4.640902 10
31.046209 -4.6421294 10
31.33536 -4.6716261 10
31.649088 -4.6464968 10
31.951338 -4.6555572 10
32.268291 -4.6423554 10
32.552155 -4.6556611 10
32.848202 -4.6466479 10
33.167305 -4.6410961 10
33.43269 -4.6525259 10
33.755939 -4.6528654 10
34.048286 -4.6375966 10
34.351086 -4.6590247 10
34.681057 -4.6445336 9.9875708
34.804504 -4.5430059 9.9619875
56.61414 -4.6435275 9.9694166
56.840389 -4.6526079 10
57.150562 -4.664957 10
57.460918 -4.6608348 10
57.752922 -4.6520319 10
58.064281 -4.6555147 10
58.349514 -4.6488414 10
58.64653 -4.6587081 10
58.954948 -4.6517758 10
59.248093 -4.6603208 10
59.550549 -4.6581907 10
59.850498 -4.6561003 10
60.141884 -4.6573496 10
60.450626 -4.6493807 10
60.75021 -4.6404309 10
61.058308 -4.6426897 10
61.35186 -4.6641769 10
61.663506 -4.6553431 10
61.948559 -4.6441808 10
62.253307 -4.6534224 10
62.56218 -4.6443419 10
62.852852 -4.6437669 10
63.149559 -4.6543503 10
63.444649 -4.6741719 10
63.774666 -4.6519375 10
63.959812 -4.6333628 9.9703808
-35.86726 -4.341815 9.986618
-35.538723 -4.3444457 10
-35.239899 -4.3615961 10
-34.962845 -4.3427138 10
-34.67218 -4.3554797 10
-34.352726 -4.3657608 10
-34.049362 -4.345407 10
-33.755939 -4.3336458 10
-33.438309 -4.3613915 10
-33.143108 -4.3492742 10
-32.84687 -4.3665776 10
-32.54707 -4.3661089 10
-32.257847 -4.3442945 10
-31.957373 -4.3550906 10
-31.640039 -4.3539586 10
-31.349501 -4.3543782 10
-31.0495 -4.3517709 10
-30.74007 -4.3453455 10
-30.445654 -4.3259478 10
-30.153755 -4.3492012 10
-29.851122 -4.3538222 10
-29.549181 -4.3555779 10
-29.248857 -4.3477478 10
-28.964691 -4.3423767 10
-28.653252 -4.3501368 9.9845848
-14.822505 -4.3574586 9.9847994
-14.543238 -4.3531842 10
-14.248219 -4.3538246 10
-13.940112 -4.3326974 10
-13.663254 -4.3588362 10
-13.364894 -4.3485293 10
-13.062853 -4.3484197 10
-12.760584 -4.3275466 10
-12.438961 -4.358305 10
-12.151288 -4.3466811 10
-11.862405 -4.353188 10
-11.5361 -4.3479438 10
-11.394131 -4.370151 9.9492979
11.588492 -4.3568201 9.9844103
11.846406 -4.3488369 10
12.160819 -4.3357415 10
12.447067 -4.3462491 10
12.75036 -4.3542142 10
13.061838 -4.3625236 10
13.338772 -4.3523531 10
13.660652 -4.3471336 10
13.944695 -4.3553219 10
14.24135 -4.3549547 10
14.550565 -4.3584633 10
14.84973 -4.3500471 10
15.151039 -4.3545647 10
15.441659 -4.3508568 10
15.740093 -4.344595 10
16.060093 -4.3435502 10
16.352255 -4.3525119 10
16.647413 -4.3374133 10
16.937725 -4.3380308 10
17.256741 -4.3430142 10
17.549295 -4.3501844 10
17.846056 -4.3457856 10
18.160898 -4.3499861 10
18.443132 -4.3596034 10
18.789772 -4.3453627 9.9851999
27.162981 -4.3536801 9.9767914
27.43968 -4.3482456 10
27.754936 -4.3542376 10
28.053564 -4.3453465 10
28.36624 -4.3467641 10
28.643364 -4.3460631 10
28.945471 -4.3473778 10
29.232355 -4.349102 10
29.559307 -4.3588753 10
29.858763 -4.3418698 10
30.158298 -4.3329406 10
30.460407 -4.3407011 10
30.749136 -4.3461242 10
31.041523 -4.3537369 10
31.345987 -4.3484135 10
31.650057 -4.3446255 10
31.945145 -4.3648629 10
32.246616 -4.3522182 10
32.558445 -4.3484411 10
32.844364 -4.3546987 10
33.143906 -4.3478799 10
33.456467 -4.3636227 10
33.751377 -4.3696694 10
34.056049 -4.3527055 10
34.332199 -4.3433161 10
34.656609 -4.3688407 10
34.827763 -4.3230138 9.9685535
56.624023 -4.3492861 9.9759512
56.858738 -4.3524113 10
57.151253 -4.357933 10
57.44936 -4.3452544 10
57.765793 -4.3578725 10
58.047852 -4.3395634 10
58.362377 -4.3397598 10
58.646145 -4.3515706 10
58.965778 -4.3583484 10
59.252037 -4.3561087 10
59.550076 -4.3492708 10
59.847168 -4.3616347 10
60.135708 -4.3578105 10
60.44759 -4.3351698 10
60.755043 -4.355711 10
61.053242 -4.3524919 10
61.357655 -4.339376 10
61.640358 -4.356482 10
61.945835 -4.373734 10
62.248215 -4.3547473 10
62.551594 -4.3463936 10
62.863693 -4.3547645 10
63.144253 -4.343833 10
63.444927 -4.3524914 10
63.741852 -4.3535891 10
63.961914 -4.3551531 9.9712257
-35.858433 -4.0471501 9.9848185
-35.541058 -4.0536108 10
-35.235802 -4.0685544 10
-34.935665 -4.0676579 10
-34.643574 -4.03894 10
-34.345798 -4.0594449 10
-34.041569 -4.0482755 10
-33.74881 -4.0577188 10
-33.444305 -4.0584698 10
-33.150406 -4.0660076 10
-32.847912 -4.0476069 10
-32.554714 -4.050632 10
-32.249126 -4.0421405 10
-31.945286 -4.0514297 10
-31.645041 -4.0526862 10
-31.339962 -4.0458632 10
-31.054621 -4.0557919 10
-30.743732 -4.0494809 10
-30.465281 -4.0255847 10
-30.144148 -4.0587916 10
-29.851984 -4.0483937 10
-29.557806 -4.0545855 10
-29.265097 -4.0321994 10
-28.955894 -4.0530996 10
-28.633278 -4.0419636 9.9803782
-14.820232 -4.0606618 9.9832859
-14.554334 -4.0666409 10
-14.24979 -4.0469794 10
-13.949872 -4.0579047 10
-13.652677 -4.0561852 10
-13.355226 -4.0594959 10
-13.059921 -4.0458803 10
-12.759855 -4.0583301 10
-12.44333 -4.031013 10
-12.153602 -4.0404978 10
-11.859006 -4.0435033 10
-11.571827 -4.0590563 10
-11.394105 -4.0189352 9.9613056
11.584693 -4.0487175 9.9829245
11.85576 -4.0359602 10
12.135762 -4.050446 10
12.443748 -4.0484848 10
12.749449 -4.0512905 10
13.073276 -4.0534263 10
13.356502 -4.0527611 10
13.662447 -4.0547996 10
13.949615 -4.0519691 10
14.26429 -4.0483942 10
14.544815 -4.0575972 10
14.836782 -4.0420213 10
15.145516 -4.054492 10
15.452358 -4.0561547 10
15.744569 -4.0404539 10
16.054214 -4.0454211 10
16.346388 -4.0577731 10
16.638672 -4.0452485 10
16.946327 -4.0501347 10
17.251616 -4.0491972 10
17.547386 -4.0490413 10
17.846329 -4.0526123 10
18.125296 -4.0635567 10
18.443827 -4.0448895 10
18.769403 -4.044208 9.9874077
27.166893 -4.0493383 9.9759388
27.45315 -4.0438137 10
27.745302 -4.0530477 10
28.047455 -4.0450783 10
28.347721 -4.0418677 10
28.655451 -4.0448613 10
28.94754 -4.04566 10
29.256086 -4.0435719 10
29.539057 -4.058404 10
29.862543 -4.0481272 10
30.155186 -4.0605412 10
30.454529 -4.0664186 10
30.749872 -4.0521774 10
31.048662 -4.0650673 10
31.34552 -4.0432863 10
31.640457 -4.0550442 10
31.96063 -4.0434804 10
32.247868 -4.0565023 10
32.537357 -4.048142 10
32.857548 -4.0469317 10
33.156059 -4.039371 10
33.457855 -4.046916 10
33.753204 -4.0535102 10
34.047932 -4.0511632 10
34.360737 -4.0547094 10
34.647388 -4.0567756 10
34.850578 -4.0435715 9.97649
56.621716 -4.0404263 9.9710855
56.854984 -4.0613418 10
57.16214 -4.0577874 10
57.461475 -4.0727677 10
57.772614 -4.0501347 10
58.053234 -4.0547442 10
58.366089 -4.0502024 10
58.65406 -4.0507865 10
58.936863 -4.0505152 10
59.244392 -4.0552444 10
59.549088 -4.0413289 10
59.852734 -4.0491457 10
60.147934 -4.0618553 10
60.458012 -4.0460443 10
60.755756 -4.0463095 10
61.050289 -4.0393715 10
61.337658 -4.071177 10
61.650585 -4.0357237 10
61.957306 -4.0469193 10
62.25499 -4.0495586 10
62.544415 -4.0383162 10
62.844585 -4.039216 10
63.171211 -4.0430498 10
63.4482 -4.0553279 10
63.749252 -4.0381746 10
63.956223 -4.0467253 9.9737463
-35.866749 -3.7548723 9.987318
-35.551949 -3.7471147 10
-35.249073 -3.7601919 10
-34.960674 -3.7602677 10
-34.656078 -3.7363281 10
-34.342266 -3.746464 10
-34.053101 -3.7665427 10
-33.749149 -3.7463055 10
-33.460915 -3.7621171 10
-33.149551 -3.7453072 10
-32.833656 -3.7436612 10
-32.555435 -3.7349954 10
-32.251404 -3.7392402 10
-31.95834 -3.7479169 10
-31.655607 -3.7449811 10
-31.343191 -3.758266 10
-31.047606 -3.7553711 10
-30.727665 -3.7490489 10
-30.446829 -3.750526 10
-30.152185 -3.7531626 10
-29.843945 -3.7558722 10
-29.545914 -3.748354 10
-29.262133 -3.7519414 10
-28.946798 -3.75192 10
-28.66086 -3.7511244 9.9852896
-14.820327 -3.7504334 9.9846315
-14.544964 -3.7558396 10
-14.261969 -3.7428722 10
-13.952373 -3.7450774 10
-13.65451 -3.7594001 10
-13.359181 -3.7521181 10
-13.057705 -3.741595 10
-12.75036 -3.7425966 10
-12.456384 -3.7417338 10
-12.142643 -3.7344074 10
-11.837162 -3.7333124 10
-11.558364 -3.7374225 10
-11.394076 -3.7370281 9.9635382
11.587039 -3.7553883 9.9816446
11.84151 -3.7427742 10
12.151886 -3.7574394 10
12.464311 -3.7626772 10
12.74441 -3.7681034 10
13.059959 -3.7558224 10
13.352731 -3.7617373 10
13.657808 -3.7517724 10
13.942884 -3.7511067 10
14.263946 -3.7427728 10
14.553404 -3.7392118 10
14.872273 -3.7413177 10
15.147164 -3.7489896 10
15.456425 -3.7626131 10
15.740119 -3.7648969 10
16.063105 -3.7405777 10
16.338642 -3.7588463 10
16.636925 -3.7547297 10
16.936388 -3.7514765 10
17.252268 -3.7546513 10
17.539513 -3.7428617 10
17.841448 -3.755064 10
18.145447 -3.744966 10
18.460958 -3.7556162 10
18.772217 -3.7562275 9.9890976
27.195515 -3.7680752 9.9872208
27.446999 -3.7404478 10
27.750837 -3.7505836 10
28.053396 -3.7461088 10
28.352501 -3.7666337 10
28.634604 -3.741941 10
28.930731 -3.7541225 10
29.262331 -3.7583272 10
29.540155 -3.7329175 10
29.860878 -3.7354887 10
30.148569 -3.75986 10
30.464886 -3.7390301 10
30.744291 -3.7444503 10
31.0425 -3.7450156 10
31.351185 -3.7417471 10
31.660419 -3.7548611 10
31.943316 -3.7608647 10
32.250267 -3.742645 10
32.536362 -3.742481 10
32.849312 -3.7399299 10
33.1632 -3.7325168 10
33.440208 -3.7503085 10
33.750668 -3.7505989 10
34.045742 -3.7369242 10
34.358746 -3.7515745 10
34.643757 -3.7478251 10
34.878616 -3.7446856 9.9743834
56.619492 -3.7484388 9.9694252
56.856331 -3.7564247 10
57.149567 -3.750181 10
57.42981 -3.7581389 10
57.742786 -3.7432339 10
58.057045 -3.743959 10
58.339722 -3.7442772 10
58.649498 -3.7420332 10
58.957565 -3.7546399 10
59.253513 -3.7501667 10
59.557678 -3.7683127 10
59.852337 -3.742795 10
60.146469 -3.7399218 10
60.442684 -3.7657301 10
60.744354 -3.7519653 10
61.042187 -3.7505312 10
61.339024 -3.7382262 10
61.656372 -3.742379 10
61.954666 -3.7755144 10
62.248932 -3.7412567 10
62.55896 -3.7508507 10
62.854877 -3.7413063 10
63.14941 -3.7676079 10
63.444027 -3.7451835 10
63.762047 -3.7512321 10
63.958809 -3.757679 9.9722443
-35.868568 -3.4497049 9.9870892
-35.55846 -3.4408889 10
-35.23999 -3.4477255 10
-34.960133 -3.4430575 10
-34.645081 -3.4353814 10
-34.348835 -3.4459054 10
-34.056789 -3.4664705 10
-33.745525 -3.4533811 10
-33.462025 -3.4402428 10
-33.149982 -3.4521415 10
-32.839447 -3.451426 10
-32.569271 -3.4519279 10
-32.256935 -3.4434669 10
-31.959173 -3.4555285 10
-31.651575 -3.4526513 10
-31.341875 -3.4443519 10
-31.041019 -3.4525089 10
-30.747639 -3.4441018 10
-30.451801 -3.4535122 10
-30.149832 -3.4524045 10
-29.848688 -3.4315197 10
-29.56822 -3.4672751 10
-29.245317 -3.4477565 10
-28.952749 -3.4458492 10
-28.650146 -3.4504952 9.9864092
-14.819695 -3.4476008 9.9850035
-14.558119 -3.4683077 10
-14.255275 -3.451797 10
-13.960246 -3.4600816 10
-13.65459 -3.4557292 10
-13.3482 -3.4492617 10
-13.05108 -3.4436431 10
-12.759859 -3.4585826 10
-12.456316 -3.4457171 10
-12.142328 -3.4523396 10
-11.838272 -3.44783 10
-11.534212 -3.449544 10
-11.394382 -3.4425683 9.9566021
11.591224 -3.4509108 9.9841604
11.864117 -3.431881 10
12.132448 -3.4597898 10
12.459894 -3.4569061 10
12.755614 -3.4375691 10
13.059369 -3.4529624 10
13.343049 -3.4623258 10
13.650174 -3.4515209 10
13.96767 -3.4555359 10
14.241867 -3.4469354 10
14.545017 -3.4519432 10
14.849767 -3.4526851 10
15.168313 -3.457577 10
15.460088 -3.4534812 10
15.746892 -3.4662938 10
16.048983 -3.4523842 10
16.34194 -3.4479041 10
16.662827 -3.4592941 10
16.962849 -3.4504886 10
17.248312 -3.4423385 10
17.542917 -3.4532375 10
17.85261 -3.4640343 10
18.146755 -3.4415164 10
18.446878 -3.4541352 10
18.766815 -3.4568188 9.9854174
27.191538 -3.4436913 9.9836454
27.458908 -3.4476697 10
27.760384 -3.4608097 10
28.043756 -3.4464936 10
28.331633 -3.4614506 10
28.662975 -3.4435987 10
28.955841 -3.4608989 10
29.25132 -3.4412293 10
29.535717 -3.4479301 10
29.844566 -3.4397957 10
30.146505 -3.4500751 10
30.4582 -3.4495769 10
30.743797 -3.451369 10
31.054247 -3.440918 10
31.358864 -3.4636288 10
31.639488 -3.4503486 10
31.965546 -3.4469035 10
32.251244 -3.4571061 10
32.568943 -3.4497154 10
32.84684 -3.4435225 10
33.148354 -3.4356534 10
33.456749 -3.4459603 10
33.744125 -3.4471292 10
34.040089 -3.4499164 10
34.3522 -3.4418867 10
34.65472 -3.459341 10
34.879879 -3.460727 9.9782314
56.617775 -3.4211333 9.969346
56.857269 -3.4632823 10
57.142998 -3.4520686 10
57.440388 -3.4607112 10
57.73761 -3.4560411 10
58.047222 -3.4435823 10
58.35952 -3.4660382 10
58.649925 -3.4566572 10
58.953152 -3.4515162 10
59.253624 -3.4468544 10
59.548244 -3.4328926 10
59.837616 -3.4434602 10
60.15332 -3.4467533 10
60.441292 -3.445528 10
60.758415 -3.4586272 10
61.034294 -3.4524465 10
61.356064 -3.4463677 10
61.659206 -3.4459064 10
61.946068 -3.434597 10
62.251392 -3.4536266 10
62.559746 -3.4514492 10
62.85273 -3.4321558 10
63.133621 -3.4630158 10
63.446274 -3.4627166 10
63.75024 -3.456115 10
63.95945 -3.4408519 9.9677544
-35.85537 -3.1431165 9.9889231
-35.557407 -3.1437895 10
-35.258522 -3.1295536 10
-34.947239 -3.1670032 10
-34.638538 -3.1503491 10
-34.345135 -3.161063 10
-34.051998 -3.1445112 10
-33.748863 -3.1569302 10
-33.451984 -3.1336451 10
-33.145412 -3.1441402 10
-32.840183 -3.1580627 10
-32.546337 -3.1459668 10
-32.250538 -3.1496222 10
-31.960001 -3.1559789 10
-31.664682 -3.1479473 10
-31.346788 -3.1608834 10
-31.056154 -3.1483405 10
-30.749418 -3.1479855 10
-30.442722 -3.1621356 10
-30.160421 -3.1428905 10
-29.870182 -3.1551869 10
-29.557215 -3.1486495 10
-29.256739 -3.1478977 10
-28.952005 -3.1663356 10
-28.658691 -3.1523862 9.9873543
-14.835411 -3.1662586 9.9756756
-14.554198 -3.1542478 10
-14.254782 -3.1566713 10
-13.962072 -3.1568885 10
-13.648502 -3.1515503 10
-13.355158 -3.1417277 10
-13.050917 -3.1479385 10
-12.758471 -3.1477036 10
-12.442152 -3.155215 10
-12.158101 -3.1618338 10
-11.863918 -3.1604674 10
-11.554942 -3.1439962 10
-11.394072 -3.1375189 9.9426003
11.583668 -3.1640432 9.9833002
11.840624 -3.1462634 10
12.171307 -3.1528125 10
12.453036 -3.1434131 10
12.720809 -3.145597 10
13.042429 -3.1465871 10
13.358582 -3.1455266 10
13.651126 -3.1442559 10
13.940197 -3.164777 10
14.252363 -3.1529989 10
14.55196 -3.137552 10
14.860463 -3.1524298 10
15.158361 -3.1517646 10
15.450593 -3.1356578 10
15.756126 -3.1496234 10
16.058426 -3.1514008 10
16.361912 -3.1559637 10
16.65719 -3.1414983 10
16.952532 -3.1525934 10
17.260866 -3.1421218 10
17.531708 -3.154211 10
17.851311 -3.1525364 10
18.153545 -3.1667788 10
18.465757 -3.143048 10
18.761024 -3.1438868 9.9871035
27.174494 -3.1345439 9.9833879
27.449585 -3.1398911 10
27.751062 -3.1447074 10
28.050022 -3.1500356 10
28.360569 -3.1541643 10
28.6563 -3.1435409 10
28.957458 -3.145206 10
29.255808 -3.1346376 10
29.557257 -3.1454179 10
29.851206 -3.1586921 10
30.150019 -3.1513159 10
30.43623 -3.152329 10
30.736717 -3.1528928 10
31.045565 -3.1469669 10
31.359314 -3.1471293 10
31.659876 -3.1598577 10
31.963142 -3.1539493 10
32.253662 -3.1426201 10
32.548119 -3.1523647 10
32.836403 -3.1593618 10
33.162937 -3.1607215 10
33.425545 -3.1502378 10
33.759136 -3.1552289 10
34.051895 -3.14182 10
34.345348 -3.1404612 10
34.651096 -3.1390545 10
34.888325 -3.1630337 9.9808702
56.619663 -3.1527815 9.976655
56.854229 -3.1515865 10
57.141582 -3.1678715 10
57.448044 -3.1467714 10
57.743114 -3.1552105 10
58.041573 -3.1471157 10
58.343945 -3.1463163 10
58.650078 -3.1529238 10
58.952419 -3.146131 10
59.247074 -3.1516254 10
59.544151 -3.1508112 10
59.868031 -3.1467879 10
60.14777 -3.1469855 10
60.43874 -3.137846 10
60.747559 -3.1514411 10
61.048401 -3.1541915 10
61.346939 -3.1572106 10
61.645828 -3.146332 10
61.944351 -3.1590188 10
62.253044 -3.1447265 10
62.558582 -3.1512499 10
62.846878 -3.1516891 10
63.145744 -3.1560299 10
63.450577 -3.1535716 10
63.761936 -3.1531305 10
63.955509 -3.1685622 9.9740562
-35.869583 -2.8404541 9.9845877
-35.556786 -2.8461382 10
-35.256584 -2.8428559 10
-34.957733 -2.8464382 10
-34.646912 -2.8608773 10
-34.354454 -2.8420134 10
-34.025646 -2.8597946 10
-33.742374 -2.8474548 10
-33.452477 -2.8394163 10
-33.151031 -2.8467233 10
-32.849903 -2.8560588 10
-32.548634 -2.8475928 10
-32.245815 -2.8435774 10
-31.950285 -2.864749 10
-31.651472 -2.8375223 10
-31.355242 -2.8619514 10
-31.044823 -2.8573704 10
-30.747629 -2.8450446 10
-30.452211 -2.8345611 10
-30.154762 -2.8360779 10
-29.863462 -2.8450351 10
-29.552298 -2.8556426 10
-29.251038 -2.8399272 10
-28.954268 -2.8526111 10
-28.650064 -2.8582165 9.9868555
-14.811289 -2.857302 9.9879007
-14.534158 -2.8399758 10
-14.247035 -2.8416972 10
-13.954114 -2.8474357 10
-13.643006 -2.8595216 10
-13.350742 -2.8623083 10
-13.043408 -2.8720984 10
-12.750854 -2.8339956 10
-12.450331 -2.8407016 10
-12.146449 -2.8461506 10
-11.854445 -2.8549876 10
-11.557323 -2.8574507 10
-11.393998 -2.8169889 9.9518595
11.586129 -2.8532913 9.9786367
11.843143 -2.8488479 10
12.152699 -2.8445818 10
12.459491 -2.8733695 10
12.756215 -2.8450241 10
13.052173 -2.8590412 10
13.347138 -2.8555946 10
13.648544 -2.8504186 10
13.952468 -2.8514781 10
14.235949 -2.8417742 10
14.556653 -2.8516939 10
14.856146 -2.8651588 10
15.149879 -2.849771 10
15.447528 -2.8581526 10
15.737322 -2.839462 10
16.050814 -2.8482201 10
16.350094 -2.8501718 10
16.653643 -2.8504841 10
16.969818 -2.8483706 10
17.270224 -2.8338699 10
17.552814 -2.840275 10
17.857738 -2.8572335 10
18.16847 -2.8495903 10
18.449299 -2.8611596 10
18.781248 -2.8536813 9.9846573
27.18968 -2.8496213 9.9833403
27.469658 -2.8442931 10
27.768375 -2.8478763 10
28.044167 -2.8510602 10
28.357836 -2.8335469 10
28.651957 -2.8573704 10
28.940197 -2.8511648 10
29.259504 -2.8553839 10
29.559099 -2.84132 10
29.845028 -2.8598003 10
30.148302 -2.8524325 10
30.43939 -2.8671069 10
30.742401 -2.8559928 10
31.048159 -2.8546083 10
31.346909 -2.8471329 10
31.642668 -2.8428395 10
31.956303 -2.8462555 10
32.250591 -2.8735735 10
32.548233 -2.8549201 10
32.862343 -2.8436003 10
33.150112 -2.8542578 10
33.44001 -2.8565869 10
33.750622 -2.8369026 10
34.061752 -2.8553159 10
34.354847 -2.8425143 10
34.647022 -2.8651972 10
34.895992 -2.8473456 9.9751902
56.615562 -2.8317819 9.9728794
56.856457 -2.8465281 10
57.156582 -2.841433 10
57.451981 -2.8449519 10
57.773384 -2.8631287 10
58.043106 -2.8521492 10
58.348873 -2.8519931 10
58.649376 -2.8560877 10
58.945095 -2.8482504 10
59.259628 -2.8433585 10
59.563354 -2.8379266 10
59.858845 -2.8520439 10
60.133915 -2.8427231 10
60.457581 -2.8353391 10
60.749157 -2.8497708 10
61.049366 -2.8496902 10
61.346104 -2.8156838 10
61.633408 -2.8365731 10
61.94154 -2.8461599 10
62.255093 -2.8548622 10
62.546658 -2.8389757 10
62.870296 -2.8360646 10
63.135769 -2.8524325 10
63.433601 -2.8486493 10
63.750748 -2.8384655 10
63.958153 -2.8564799 9.9775982
-35.872044 -2.5520465 9.9869423
-35.560837 -2.5483823 10
-35.254662 -2.5582795 10
-34.956352 -2.5407605 10
-34.656742 -2.5436261 10
-34.356327 -2.5632606 10
-34.051373 -2.5366173 10
-33.748547 -2.5437236 10
-33.451866 -2.5441535 10
-33.151836 -2.547745 10
-32.853424 -2.5751665 10
-32.551105 -2.5462029 10
-32.248497 -2.5379164 10
-31.948242 -2.5512493 10
-31.653805 -2.5410399 10
-31.354149 -2.5436122 10
-31.059923 -2.5454822 10
-30.763159 -2.5536168 10
-30.443932 -2.5740054 10
-30.147261 -2.5506253 10
-29.840683 -2.5586071 10
-29.564386 -2.5489788 10
-29.240858 -2.5456374 10
-28.944757 -2.5586922 10
-28.633198 -2.5451734 9.983551
-14.822632 -2.5419905 9.9858179
-14.550062 -2.5503271 10
-14.24297 -2.5512617 10
-13.93883 -2.5425723 10
-13.656616 -2.545387 10
-13.349095 -2.5464721 10
-13.046763 -2.5340097 10
-12.768588 -2.5546269 10
-12.452784 -2.5600638 10
-12.149581 -2.5558338 10
-11.866511 -2.5518825 10
-11.556261 -2.5524445 10
-11.394035 -2.5377073 9.9521236
11.57288 -2.5454562 9.9792366
11.86348 -2.5491061 10
12.152825 -2.5441515 10
12.446232 -2.5434191 10
12.745065 -2.5508218 10
13.048293 -2.5537157 10
13.353504 -2.543108 10
13.640675 -2.5335507 10
13.961179 -2.5559521 10
14.242688 -2.5480275 10
14.549421 -2.5525987 10
14.848422 -2.5449493 10
15.174806 -2.5328836 10
15.447502 -2.5500858 10
15.750794 -2.5669997 10
16.049767 -2.5489135 10
16.340734 -2.5510225 10
16.64044 -2.5649605 10
16.950575 -2.5246713 10
17.24898 -2.5554099 10
17.540203 -2.5669832 10
17.852676 -2.5594263 10
18.139574 -2.5524361 10
18.434769 -2.5598743 10
18.771761 -2.5470994 9.9859715
27.174471 -2.5345149 9.9843197
27.44393 -2.5553405 10
27.745617 -2.547271 10
28.032997 -2.558218 10
28.352654 -2.5452895 10
28.659445 -2.5425484 10
28.967659 -2.5557907 10
29.246969 -2.5620615 10
29.561573 -2.5398905 10
29.848122 -2.5397696 10
30.144939 -2.5555346 10
30.43576 -2.5583711 10
30.746044 -2.5433302 10
31.057676 -2.5668187 10
31.341782 -2.551697 10
31.63472 -2.5361238 10
31.953602 -2.5515575 10
32.263992 -2.5551088 10
32.549412 -2.5518608 10
32.856976 -2.5404835 10
33.157761 -2.5550656 10
33.463379 -2.53234 10
33.740963 -2.550204 10
34.05888 -2.5410123 10
34.354778 -2.5499876 10
34.668251 -2.5619063 10
34.907269 -2.5307562 9.9771795
56.617294 -2.5516334 9.9712181
56.848724 -2.5404978 10
57.158508 -2.5489705 10
57.452751 -2.5491953 10
57.740273 -2.5480447 10
58.057503 -2.5414419 10
58.356983 -2.5677421 10
58.646881 -2.5388832 10
58.950729 -2.5492842 10
59.24736 -2.5591335 10
59.56356 -2.5529454 10
59.862148 -2.5519278 10
60.152466 -2.5646951 10
60.452427 -2.5504348 10
60.740894 -2.5468111 10
61.040668 -2.5299237 10
61.34454 -2.5554569 10
61.645847 -2.5436702 10
61.96069 -2.5508525 10
62.255875 -2.5407248 10
62.561573 -2.537931 10
62.84399 -2.5529609 10
63.157051 -2.5466862 10
63.462887 -2.5544834 10
63.751858 -2.5448823 10
63.960079 -2.5591362 9.9761543
-35.877262 -2.2489827 9.9854212
-35.546604 -2.2522852 10
-35.26495 -2.2466195 10
-34.956841 -2.2366202 10
-34.652267 -2.2476649 10
-34.350174 -2.2405283 10
-34.034306 -2.2434862 10
-33.747948 -2.2539983 10
-33.45356 -2.2623589 10
-33.14526 -2.2518115 10
-32.869518 -2.2431276 10
-32.556496 -2.2413101 10
-32.25362 -2.2449477 10
-31.957512 -2.2533946 10
-31.636019 -2.2413034 10
-31.348572 -2.2547255 10
-31.045561 -2.2375927 10
-30.757887 -2.2458537 10
-30.442474 -2.2368121 10
-30.161413 -2.2518058 10
-29.851528 -2.2440031 10
-29.561678 -2.2610452 10
-29.255409 -2.2530632 10
-28.941446 -2.243139 10
-28.654957 -2.2418184 9.9844952
-14.826687 -2.2636352 9.9817753
-14.53531 -2.2561331 10
-14.243042 -2.2412419 10
-13.943016 -2.2380247 10
-13.6438 -2.2594678 10
-13.352186 -2.2522724 10
-13.046288 -2.2569056 10
-12.737787 -2.253633 10
-12.444085 -2.2588561 10
-12.13413 -2.240361 10
-11.850701 -2.2490754 10
-11.55101 -2.2420924 10
-11.394003 -2.2551479 9.9534006
11.585277 -2.2489634 9.9818201
11.847143 -2.2539315 10
12.149418 -2.2445917 10
12.437434 -2.2442575 10
12.745362 -2.2464724 10
13.031142 -2.2453647 10
13.343149 -2.2424674 10
13.652278 -2.2480016 10
13.945091 -2.2516887 10
14.249879 -2.254173 10
14.550048 -2.234653 10
14.842806 -2.2666914 10
15.147801 -2.2528417 10
15.450769 -2.2491632 10
15.75415 -2.2527821 10
16.052685 -2.2372842 10
16.363281 -2.2491293 10
16.652658 -2.2585115 10
16.952219 -2.253078 10
17.247482 -2.2495487 10
17.544857 -2.2441087 10
17.845676 -2.2437766 10
18.142363 -2.2489095 10
18.446526 -2.2562211 10
18.770248 -2.2576971 9.985075
27.17473 -2.2565842 9.9817991
27.448776 -2.2497885 10
27.736551 -2.2384284 10
28.04641 -2.241657 10
28.330387 -2.2347984 10
28.650843 -2.2411094 10
28.953026 -2.2706919 10
29.25355 -2.237165 10
29.540121 -2.2524216 10
29.848322 -2.2394748 10
30.172279 -2.2617087 10
30.463243 -2.2429199 10
30.744909 -2.229532 10
31.049013 -2.2523551 10
31.342813 -2.2460468 10
31.649389 -2.2523351 10
31.950096 -2.2455239 10
32.24276 -2.2376773 10
32.548222 -2.2503951 10
32.849422 -2.2540236 10
33.152702 -2.2407532 10
33.451309 -2.2479405 10
33.750999 -2.2447262 10
34.059723 -2.2618985 10
34.34977 -2.2542691 10
34.643642 -2.2314439 10
34.89513 -2.259033 9.9845676
56.624714 -2.2487695 9.9789867
56.845509 -2.2473309 10
57.159801 -2.2429256 10
57.449772 -2.2493465 10
57.741001 -2.2484627 10
58.062698 -2.2647157 10
58.359264 -2.2526522 10
58.649193 -2.2571125 10
58.941685 -2.261359 10
59.261131 -2.2474878 10
59.560978 -2.2520244 10
59.858978 -2.2488387 10
60.145172 -2.2464917 10
60.448299 -2.2605188 10
60.749699 -2.2562888 10
61.049217 -2.2334759 10
61.352047 -2.2608328 10
61.648643 -2.2582097 10
61.941158 -2.2402828 10
62.255322 -2.2198055 10
62.530895 -2.2550035 10
62.853622 -2.2416556 10
63.148754 -2.2573984 10
63.446941 -2.2495191 10
63.734146 -2.2366736 10
63.954487 -2.2330651 9.9803305
-35.868404 -1.9439476 9.9865999
-35.561714 -1.9531136 10
-35.237537 -1.942131 10
-34.946781 -1.9420635 10
-34.641533 -1.9507763 10
-34.348927 -1.9485912 10
-34.032467 -1.9531837 10
-33.760872 -1.9398693 10
-33.454681 -1.9580811 10
-33.155659 -1.9482778 10
-32.856396 -1.9545341 10
-32.555286 -1.9590318 10
-32.24786 -1.9523863 10
-31.936657 -1.9509991 10
-31.65822 -1.9499903 10
-31.350452 -1.9521557 10
-31.045263 -1.9508677 10
-30.736389 -1.9364461 10
-30.473061 -1.958353 10
-30.14929 -1.9530319 10
-29.849649 -1.9481262 10
-29.559586 -1.9388585 10
-29.253891 -1.9646684 10
-28.956797 -1.9697964 10
-28.651411 -1.9304972 9.9842358
-14.82189 -1.9581834 9.9844656
-14.561999 -1.9398252 10
-14.239771 -1.9486277 10
-13.974642 -1.9541548 10
-13.638724 -1.9536439 10
-13.347862 -1.9666692 10
-13.045475 -1.9420344 10
-12.748877 -1.9487787 10
-12.458301 -1.9465499 10
-12.147305 -1.9698842 10
-11.857177 -1.9474512 10
-11.552578 -1.95443 10
-11.394001 -1.9801403 9.9581347
11.583937 -1.9366696 9.9845085
11.864257 -1.938579 10
12.16192 -1.9486344 10
12.461609 -1.962304 10
12.750977 -1.9366753 10
13.057755 -1.9535871 10
13.341995 -1.960903 10
13.664222 -1.9506555 10
13.944674 -1.9423798 10
14.251291 -1.9468927 10
14.541583 -1.9435917 10
14.85022 -1.9454588 10
15.152251 -1.9462993 10
15.452555 -1.9329716 10
15.730063 -1.9458905 10
16.056562 -1.9515147 10
16.346642 -1.9365696 10
16.666573 -1.9532818 10
16.961912 -1.953763 10
17.254141 -1.9490891 10
17.561991 -1.9571636 10
17.853977 -1.9397017 10
18.144197 -1.9624547 10
18.4569 -1.9360124 10
18.77512 -1.9407542 9.9837294
27.171602 -1.9441235 9.9807053
27.456022 -1.9446902 10
27.754972 -1.9478915 10
28.038057 -1.9444518 10
28.351797 -1.9559085 10
28.652594 -1.9513257 10
28.954632 -1.9560469 10
29.235888 -1.9464822 10
29.542938 -1.9406941 10
29.839502 -1.944886 10
30.158226 -1.9593847 10
30.454834 -1.9396946 10
30.746542 -1.946164 10
31.046352 -1.9720029 10
31.348602 -1.9568806 10
31.655384 -1.9450542 10
31.923702 -1.9445382 10
32.251389 -1.9721832 10
32.541019 -1.9572798 10
32.838539 -1.9610159 10
33.146595 -1.958515 10
33.448776 -1.9643903 10
33.741409 -1.9562025 10
34.044792 -1.9876844 10
34.34779 -1.9634904 10
34.658337 -1.9486704 10
34.891983 -1.936679 9.9749489
56.61747 -1.9405071 9.9772635
56.85482 -1.9734153 10
57.145138 -1.9568139 10
57.438992 -1.9434528 10
57.749115 -1.94408 10
58.050419 -1.951973 10
58.362164 -1.950819 10
58.659397 -1.9770846 10
58.968243 -1.9247705 10
59.257603 -1.9525535 10
59.555214 -1.9541796 10
59.857304 -1.941965 10
60.159122 -1.9652219 10
60.452194 -1.9525523 10
60.752102 -1.9429193 10
61.041084 -1.9462723 10
61.35881 -1.9371704 10
61.645405 -1.955332 10
61.95377 -1.9553409 10
62.250626 -1.9599185 10
62.554993 -1.9576799 10
62.84486 -1.9540038 10
63.14262 -1.9383371 10
63.447483 -1.9458284 10
63.756153 -1.960647 10
63.958187 -1.9369241 9.9725704
-35.867615 -1.6517555 9.9839411
-35.558937 -1.6369541 10
-35.250595 -1.656219 10
-34.964252 -1.6577919 10
-34.631638 -1.6437002 10
-34.358356 -1.636978 10
-34.053684 -1.6686102 10
-33.756794 -1.6506836 10
-33.458366 -1.6532924 10
-33.145966 -1.6458352 10
-32.857872 -1.642639 10
-32.556908 -1.6524994 10
-32.257324 -1.6602904 10
-31.942114 -1.6672336 10
-31.650852 -1.6614536 10
-31.361055 -1.6436249 10
-31.059719 -1.6402422 10
-30.744432 -1.6619055 10
-30.465166 -1.6474656 10
-30.153032 -1.6544559 10
-29.843235 -1.6465882 10
-29.564234 -1.6560756 10
-29.240396 -1.6422604 10
-28.942125 -1.6515836 10
-28.650522 -1.6565 9.9826765
-14.84053 -1.6475722 9.9733582
-14.551489 -1.6378921 10
-14.233269 -1.6460452 10
-13.929561 -1.6317414 10
-13.663986 -1.6450543 10
-13.346169 -1.6574255 10
-13.052781 -1.6631749 10
-12.754602 -1.6434228 10
-12.443269 -1.6537027 10
-12.137421 -1.6602919 10
-11.851744 -1.6465375 10
-11.55364 -1.6465874 10
-11.394104 -1.6798996 9.9584236
11.579384 -1.6556169 9.9813023
11.847146 -1.6583664 10
12.152282 -1.6593668 10
12.454944 -1.651051 10
12.736804 -1.6453137 10
13.04695 -1.6334165 10
13.36158 -1.6318486 10
13.645185 -1.6481311 10
13.95935 -1.6611962 10
14.250013 -1.6621097 10
14.547224 -1.6646597 10
14.844975 -1.6445075 10
15.135877 -1.6570886 10
15.441298 -1.6471126 10
15.733018 -1.6414535 10
16.042358 -1.6385182 10
16.357006 -1.6415467 10
16.654669 -1.6436745 10
16.936913 -1.6371715 10
17.240694 -1.6346055 10
17.550241 -1.6515721 10
17.856802 -1.651052 10
18.146385 -1.6601828 10
18.428108 -1.6599318 10
18.767414 -1.6571121 9.9885159
27.150246 -1.640852 9.9841967
27.44861 -1.6597358 10
27.749609 -1.6324949 10
28.055586 -1.6462028 10
28.362438 -1.6545098 10
28.640358 -1.6673166 10
28.961008 -1.6570226 10
29.245926 -1.6550921 10
29.55628 -1.652113 10
29.84804 -1.6625046 10
30.149086 -1.6442372 10
30.462328 -1.6637076 10
30.751633 -1.6497219 10
31.054836 -1.6456453 10
31.356455 -1.6302495 10
31.668503 -1.6622565 10
31.960825 -1.6457888 10
32.246342 -1.6417682 10
32.550617 -1.6626048 10
32.866482 -1.6503719 10
33.147491 -1.6471182 10
33.442795 -1.629148 10
33.76125 -1.6357737 10
34.060226 -1.6609318 10
34.350822 -1.6600449 10
34.670532 -1.6546192 10
34.876007 -1.6518291 9.9748898
56.62048 -1.6691508 9.9747734
56.852276 -1.6504647 10
57.146267 -1.6513367 10
57.455223 -1.6523465 10
57.751263 -1.6351577 10
58.038342 -1.6564863 10
58.342354 -1.6528558 10
58.659115 -1.6565619 10
58.940731 -1.6366714 10
59.26479 -1.6557517 10
59.550056 -1.6404124 10
59.856796 -1.6504191 10
60.147331 -1.6483303 10
60.453033 -1.6584667 10
60.755161 -1.6564387 10
61.053921 -1.6458989 10
61.3423 -1.6713371 10
61.659416 -1.6569808 10
61.96492 -1.6490498 10
62.246796 -1.6272768 10
62.555313 -1.6464819 10
62.843189 -1.6501629 10
63.163898 -1.6446801 10
63.45763 -1.6544929 10
63.749332 -1.6473804 10
63.953297 -1.6322025 9.9803305
-35.873989 -1.3601917 9.986762
-35.537449 -1.3575423 10
-35.237339 -1.3341037 10
-34.945839 -1.3472993 10
-34.649593 -1.3434246 10
-34.352947 -1.3392311 10
-34.053242 -1.3446239 10
-33.751877 -1.3490943 10
-33.460762 -1.3423253 10
-33.149891 -1.3513867 10
-32.853321 -1.3517927 10
-32.542065 -1.3709201 10
-32.240719 -1.3458456 10
-31.945461 -1.3682904 10
-31.64217 -1.3470398 10
-31.34691 -1.3544803 10
-31.045765 -1.3543249 10
-30.732622 -1.3476709 10
-30.456707 -1.3524296 10
-30.153049 -1.36447 10
-29.861822 -1.3649427 10
-29.551395 -1.3557086 10
-29.255836 -1.3393123 10
-28.967108 -1.3529959 10
-28.655449 -1.3653635 9.9883757
-14.824347 -1.3330786 9.9787846
-14.536516 -1.3554542 10
-14.244332 -1.3592414 10
-13.949774 -1.344153 10
-13.656766 -1.3539969 10
-13.345148 -1.343331 10
-13.050717 -1.3541876 10
-12.753888 -1.3575429 10
-12.445481 -1.350826 10
-12.15629 -1.364602 10
-11.84506 -1.3329194 10
-11.544577 -1.3415406 10
-11.394268 -1.35734 9.9494028
11.579284 -1.3477296 9.9804153
11.850778 -1.3535795 10
12.138014 -1.3527656 10
12.446417 -1.3466976 10
12.757519 -1.3586199 10
13.042068 -1.3445622 10
13.356047 -1.3425447 10
13.645684 -1.3455755 10
13.931521 -1.3499426 10
14.245976 -1.3468933 10
14.537911 -1.3402908 10
14.848939 -1.3498572 10
15.158529 -1.3537222 10
15.445775 -1.3518306 10
15.74185 -1.3518018 10
16.045214 -1.3523051 10
16.357563 -1.3582268 10
16.634781 -1.3367012 10
16.961721 -1.3595945 10
17.244526 -1.3569974 10
17.544878 -1.3493005 10
17.85812 -1.3392035 10
18.137939 -1.3336864 10
18.442448 -1.3596894 10
18.780191 -1.3549728 9.9840078
27.142345 -1.3441106 9.9880619
27.440786 -1.3531722 10
27.755383 -1.3351456 10
28.063953 -1.3504716 10
28.345091 -1.3347576 10
28.652645 -1.353301 10
28.949781 -1.3724142 10
29.255688 -1.3496099 10
29.550692 -1.3561842 10
29.84956 -1.3534119 10
30.137594 -1.3425765 10
30.445158 -1.3370832 10
30.747784 -1.3465625 10
31.052145 -1.364014 10
31.34551 -1.3468071 10
31.661892 -1.3415196 10
31.952805 -1.3444275 10
32.256748 -1.3518677 10
32.54591 -1.3615187 10
32.854828 -1.3469468 10
33.142933 -1.3428193 10
33.455933 -1.3501368 10
33.753147 -1.3678629 10
34.053104 -1.3500783 10
34.357422 -1.3408064 10
34.652088 -1.3451425 10
34.867535 -1.3507529 9.972579
56.623993 -1.3445771 9.9789677
56.842171 -1.354758 10
57.14579 -1.3475605 10
57.451393 -1.3421054 10
57.771702 -1.3469332 10
58.059814 -1.3491778 10
58.351562 -1.3553221 10
58.642063 -1.3475666 10
58.953754 -1.3507543 10
59.25267 -1.3414249 10
59.559864 -1.3405814 10
59.84264 -1.3614616 10
60.140675 -1.3636701 10
60.449677 -1.3420006 10
60.755314 -1.3493315 10
61.062893 -1.3505672 10
61.361034 -1.3574235 10
61.651234 -1.338629 10
61.936108 -1.3433263 10
62.242043 -1.355171 10
62.553734 -1.3521714 10
62.85281 -1.3499223 10
63.158146 -1.3466915 10
63.455067 -1.3552316 10
63.743843 -1.3459955 10
63.955349 -1.3633827 9.9799662
-35.873787 -1.0561775 9.9832144
-35.534721 -1.0301719 10
-35.254982 -1.038413 10
-34.950928 -1.0572848 10
-34.655315 -1.0488538 10
-34.33984 -1.0749953 10
-34.047024 -1.0369167 10
-33.750458 -1.0458369 10
-33.449245 -1.0485255 10
-33.136223 -1.0520357 10
-32.840649 -1.0408219 10
-32.543564 -1.054549 10
-32.260098 -1.0384866 10
-31.964334 -1.0454608 10
-31.649353 -1.0623859 10
-31.347996 -1.0477049 10
-31.041643 -1.0392247 10
-30.760281 -1.0616382 10
-30.454901 -1.0564295 10
-30.144773 -1.0474541 10
-29.854027 -1.0526546 10
-29.557964 -1.0520892 10
-29.255278 -1.0437684 10
-28.950945 -1.0387161 10
-28.656738 -1.0534133 9.9855785
-14.820206 -1.0464784 9.9884558
-14.553039 -1.0425346 10
-14.249949 -1.0347023 10
-13.943907 -1.0339561 10
-13.650022 -1.0455405 10
-13.339825 -1.050045 10
-13.046847 -1.051958 10
-12.747282 -1.0608383 10
-12.455882 -1.054836 10
-12.15441 -1.0635495 10
-11.840684 -1.0627635 10
-11.540975 -1.0420752 10
-11.394001 -1.071811 9.9619875
11.599475 -1.0489281 9.9828405
11.86274 -1.0491735 10
12.157759 -1.0667074 10
12.452609 -1.0419768 10
12.731128 -1.0616989 10
13.051374 -1.048511 10
13.352473 -1.0522102 10
13.648206 -1.046567 10
13.958884 -1.047726 10
14.243039 -1.0478836 10
14.558235 -1.0580357 10
14.850696 -1.0374827 10
15.168256 -1.0602609 10
15.44472 -1.0545976 10
15.748908 -1.0346277 10
16.041023 -1.0534056 10
16.354366 -1.0527902 10
16.648039 -1.0538766 10
16.966183 -1.0493524 10
17.255165 -1.0657486 10
17.55744 -1.052927 10
17.863934 -1.0527411 10
18.146585 -1.0528588 10
18.4501 -1.063399 10
18.778147 -1.0363835 9.9858179
27.123924 -1.0576067 9.9913712
27.445292 -1.0530081 10
27.767771 -1.0473797 10
28.067055 -1.0450753 10
28.342375 -1.0521038 10
28.659189 -1.0533992 10
28.95307 -1.0614396 10
29.242374 -1.0524286 10
29.542809 -1.0333437 10
29.832088 -1.0451289 10
30.158682 -1.0525383 10
30.456215 -1.05023 10
30.759651 -1.0467119 10
31.062662 -1.0433192 10
31.351732 -1.0398028 10
31.65465 -1.0646549 10
31.934441 -1.0803524 10
32.245174 -1.0544004 10
32.543842 -1.0484862 10
32.844891 -1.0426099 10
33.149006 -1.06399 10
33.457195 -1.0467091 10
33.753117 -1.0561769 10
34.070099 -1.0472274 10
34.355377 -1.0547094 10
34.650517 -1.0435386 10
34.85569 -1.0397224 9.9752016
56.617931 -1.0523434 9.975913
56.85268 -1.0530663 10
57.148758 -1.0486406 10
57.453163 -1.0653225 10
57.753441 -1.0435652 10
58.038651 -1.03944 10
58.347527 -1.0477996 10
58.655777 -1.0381861 10
58.946182 -1.0613972 10
59.251034 -1.0478109 10
59.547699 -1.0565027 10
59.853577 -1.0603825 10
60.146698 -1.0495306 10
60.46172 -1.0479978 10
60.760155 -1.0538352 10
61.059566 -1.0371078 10
61.357368 -1.0441867 10
61.636974 -1.0568597 10
61.946644 -1.0518309 10
62.258759 -1.047677 10
62.558193 -1.0420778 10
62.850613 -1.0528924 10
63.165546 -1.0554196 10
63.448055 -1.0642259 10
63.750477 -1.0473722 10
63.95808 -1.0568235 9.9706221
-35.859386 -0.73929775 9.9832067
-35.537834 -0.75517684 10
-35.240902 -0.7494837 10
-34.950771 -0.75708139 10
-34.644485 -0.7419591 10
-34.355495 -0.76761264 10
-34.04998 -0.74376434 10
-33.751411 -0.7477088 10
-33.467407 -0.74263537 10
-33.155773 -0.74362236 10
-32.857052 -0.74317139 10
-32.552341 -0.75447935 10
-32.251144 -0.75630969 10
-31.943769 -0.74441212 10
-31.647783 -0.7521016 10
-31.344822 -0.74328279 10
-31.049259 -0.74738258 10
-30.742512 -0.75520164 10
-30.450138 -0.76143956 10
-30.132322 -0.76264846 10
-29.867363 -0.7478435 10
-29.546181 -0.75284249 10
-29.250397 -0.74178678 10
-28.952255 -0.75006104 10
-28.644869 -0.74404132 9.9836378
-14.821401 -0.74222076 9.9830971
-14.544948 -0.75629503 10
-14.251907 -0.73611832 10
-13.966374 -0.74438691 10
-13.650251 -0.74421525 10
-13.360623 -0.75606406 10
-13.048776 -0.76163244 10
-12.760915 -0.76066512 10
-12.432245 -0.76171803 10
-12.144287 -0.74545228 10
-11.850265 -0.75097388 10
-11.542295 -0.74727583 10
-11.394063 -0.73865724 9.9589777
11.575496 -0.76810598 9.9821577
11.848064 -0.76067048 10
12.137539 -0.74187738 10
12.443926 -0.76424867 10
12.743897 -0.75523311 10
13.040139 -0.75223196 10
13.358547 -0.73488081 10
13.652431 -0.75384104 10
13.955277 -0.7574752 10
14.260672 -0.75094241 10
14.559033 -0.73839366 10
14.847688 -0.75798136 10
15.139022 -0.74693513 10
15.443542 -0.74620163 10
15.743599 -0.76320416 10
16.039564 -0.75692648 10
16.357002 -0.76063627 10
16.660332 -0.74066818 10
16.941067 -0.76536858 10
17.242851 -0.74557978 10
17.554525 -0.75341421 10
17.847095 -0.74957162 10
18.151152 -0.73980552 10
18.447409 -0.7407673 10
18.777264 -0.75251579 9.9857197
26.983831 -0.73660249 9.9555807
27.131428 -0.74923748 9.9990168
27.454842 -0.73651034 10
27.750389 -0.74260885 10
28.054493 -0.73857814 10
28.340115 -0.75998324 10
28.633095 -0.75549346 10
28.949131 -0.75697649 10
29.26897 -0.7454018 10
29.55419 -0.75971723 10
29.860771 -0.7284413 10
30.142609 -0.74227172 10
30.445639 -0.7385273 10
30.753338 -0.73813879 10
31.056602 -0.74390066 10
31.361212 -0.74797732 10
31.655819 -0.75122279 10
31.948664 -0.75791246 10
32.263554 -0.75041217 10
32.530724 -0.74516267 10
32.83786 -0.75886577 10
33.129963 -0.74724233 10
33.433083 -0.75418448 10
33.753212 -0.74847734 10
34.033733 -0.73091352 10
34.355785 -0.74329579 10
34.654037 -0.73813987 10
34.830376 -0.74960095 9.9642601
56.616047 -0.75001001 9.9717045
56.839035 -0.74445337 10
57.152294 -0.73082751 10
57.439865 -0.76157165 10
57.749718 -0.7462256 10
58.052181 -0.75187153 10
58.346676 -0.76084572 10
58.65451 -0.74700701 10
58.952377 -0.7327106 10
59.253353 -0.75634259 10
59.556049 -0.76284331 10
59.853153 -0.76641876 10
60.150669 -0.72659606 10
60.450165 -0.76188821 10
60.761295 -0.75557029 10
61.042126 -0.75567031 10
61.350464 -0.74831045 10
61.656628 -0.76417023 10
61.936893 -0.74181664 10
62.244019 -0.73889649 10
62.550659 -0.76058716 10
62.848583 -0.75487083 10
63.143459 -0.75273097 10
63.437035 -0.74373311 10
63.755154 -0.75605273 10
63.960205 -0.71750402 9.9715471
-35.861134 -0.44621211 9.9835863
-35.541676 -0.45315626 10
-35.226669 -0.45086554 10
-34.940266 -0.44446826 10
-34.644627 -0.45530623 10
-34.342262 -0.46167719 10
-34.048702 -0.46629739 10
-33.767685 -0.45003408 10
-33.44136 -0.44472221 10
-33.150902 -0.46046031 10
-32.846333 -0.44697833 10
-32.548573 -0.45871133 10
-32.264736 -0.45270732 10
-31.939947 -0.44488025 10
-31.647116 -0.45275506 10
-31.351871 -0.44366539 10
-31.045483 -0.44353828 10
-30.748266 -0.44639778 10
-30.456585 -0.44768372 10
-30.15683 -0.45242926 10
-29.850843 -0.44054106 10
-29.550196 -0.4535799 10
-29.260931 -0.46234116 10
-28.96039 -0.45112008 10
-28.661219 -0.45386735 9.9867134
-14.819386 -0.45323402 9.9841871
-14.55687 -0.45686156 10
-14.234971 -0.4576014 10
-13.967752 -0.42959541 10
-13.648871 -0.44147873 10
-13.341361 -0.45507494 10
-13.042843 -0.44529992 10
-12.763213 -0.4549585 10
-12.482412 -0.45831281 10
-12.160023 -0.45696294 10
-11.85045 -0.46301597 10
-11.54667 -0.45377013 10
-11.394126 -0.4792313 9.9489527
11.598421 -0.44801784 9.9905767
11.843665 -0.4479754 10
12.13759 -0.45360997 10
12.45375 -0.44927227 10
12.739163 -0.43856841 10
13.054099 -0.45768952 10
13.371319 -0.45374179 10
13.650713 -0.44188553 10
13.930311 -0.45692709 10
14.241754 -0.43481311 10
14.549098 -0.44741881 10
14.853422 -0.45955923 10
15.153813 -0.44742438 10
15.445471 -0.45202002 10
15.748942 -0.45580056 10
16.060423 -0.45070297 10
16.355024 -0.4568449 10
16.663116 -0.44732675 10
16.941393 -0.46634778 10
17.251892 -0.44853663 10
17.55368 -0.44089383 10
17.856394 -0.44191244 10
18.159885 -0.447577 10
18.446548 -0.44099844 10
18.777334 -0.46775067 9.9862604
26.949003 -0.44633716 9.9648962
27.159264 -0.45690989 10
27.451111 -0.44578978 10
27.739208 -0.46756339 10
28.038477 -0.46159583 10
28.347673 -0.46132734 10
28.645084 -0.45977432 10
28.970573 -0.42386302 10
29.253662 -0.44978461 10
29.551355 -0.45266652 10
29.847563 -0.44424823 10
30.165337 -0.45199603 10
30.448589 -0.44905069 10
30.75034 -0.43370262 10
31.059536 -0.44592705 10
31.346573 -0.44291392 10
31.641104 -0.44878161 10
31.946545 -0.44483307 10
32.245335 -0.45825025 10
32.531963 -0.45754308 10
32.865509 -0.44991827 10
33.148563 -0.44884714 10
33.43391 -0.44478437 10
33.765202 -0.44391024 10
34.057384 -0.44482946 10
34.338963 -0.44891119 10
34.681999 -0.43792838 9.9862661
34.805485 -0.56486416 9.9600563
56.617607 -0.45104128 9.9756536
56.862896 -0.45182511 10
57.143925 -0.43990597 10
57.457165 -0.44899201 10
57.756008 -0.44833356 10
58.047398 -0.44549736 10
58.347633 -0.44870529 10
58.654335 -0.44361261 10
58.947041 -0.44157481 10
59.250347 -0.44308478 10
59.547707 -0.44590309 10
59.844917 -0.45281351 10
60.158669 -0.46000862 10
60.453167 -0.45851994 10
60.74823 -0.46468753 10
61.059673 -0.45821324 10
61.339596 -0.46008027 10
61.647243 -0.4527452 10
61.94767 -0.45668307 10
62.250229 -0.44108227 10
62.549858 -0.45761311 10
62.837399 -0.45973268 10
63.155281 -0.44663361 10
63.44178 -0.4671168 10
63.748924 -0.45220983 10
63.959988 -0.42208043 9.9719229
-35.858341 -0.15166704 9.984005
-35.554764 -0.14759064 10
-35.25124 -0.15875019 10
-34.939106 -0.15769963 10
-34.653942 -0.14319873 10
-34.347153 -0.1713842 10
-34.052544 -0.15021087 10
-33.748871 -0.15714316 10
-33.46336 -0.15339139 10
-33.146244 -0.14610913 10
-32.8423 -0.153844 10
-32.539539 -0.15443262 10
-32.246655 -0.14721684 10
-31.928383 -0.14944895 10
-31.640999 -0.15573663 10
-31.352816 -0.16610122 10
-31.039349 -0.14500186 10
-30.743404 -0.15213703 10
-30.451111 -0.15504581 10
-30.13888 -0.1441986 10
-29.855558 -0.14981931 10
-29.545326 -0.15274332 10
-29.254963 -0.16039959 10
-28.963755 -0.1570334 10
-28.658113 -0.14255445 9.9856224
-14.819272 -0.14079835 9.9903955
-14.542097 -0.16203818 10
-14.263462 -0.152917 10
-13.960473 -0.16439059 10
-13.652123 -0.14460601 10
-13.348133 -0.14529362 10
-13.053008 -0.14639573 10
-12.731633 -0.14624637 10
-12.458208 -0.14953874 10
-12.149362 -0.1591592 10
-11.840835 -0.1646015 10
-11.551033 -0.14251116 10
-11.394295 -0.15915009 9.9548473
11.581464 -0.14500634 9.9817934
11.855188 -0.13569957 10
12.149822 -0.15722033 10
12.458529 -0.15005869 10
12.744532 -0.14455815 10
13.041803 -0.16806483 10
13.350974 -0.16105585 10
13.651412 -0.14940119 10
13.955116 -0.15528464 10
14.247586 -0.15465418 10
14.553407 -0.1423704 10
14.861428 -0.13780184 10
15.15625 -0.14833608 10
15.451946 -0.1470439 10
15.739909 -0.13067792 10
16.048922 -0.14555477 10
16.376394 -0.14319824 10
16.654877 -0.1624743 10
16.939171 -0.15833372 10
17.24297 -0.14129919 10
17.550196 -0.14170323 10
17.872946 -0.16472585 10
18.145567 -0.15515777 10
18.445871 -0.15192294 10
18.775232 -0.14371966 9.9850159
26.920738 -0.16063175 9.9755688
27.16156 -0.13595253 10
27.454674 -0.13012758 10
27.73958 -0.15641317 10
28.056759 -0.1372523 10
28.344318 -0.1399484 10
28.662195 -0.13814403 10
28.93712 -0.15430975 10
29.26787 -0.14937395 10
29.550404 -0.15628104 10
29.850664 -0.1514107 10
30.154453 -0.14224751 10
30.458811 -0.16147456 10
30.737736 -0.14968243 10
31.044809 -0.15118898 10
31.366356 -0.15187532 10
31.643549 -0.1483231 10
31.952021 -0.14595802 10
